ply
format ascii 1.0
comment VCGLIB generated
element vertex 324
property float x
property float y
property float z
property float nx
property float ny
property float nz
property uchar red
property uchar green
property uchar blue
property uchar alpha
element face 0
property list uchar int vertex_indices
end_header
0.0107732 0.0788949 -0.49895 0.992939 0.118165 0.0104568 46 40 28 255 
0.0120033 0.0252494 -0.0686633 0.810399 -0.581824 0.068811 42 43 29 255 
-0.00428409 -0.0277415 0.652554 0.992617 -0.0548392 0.108188 87 94 60 255 
0.00521525 0.180322 0.614221 0.998574 0.0498799 -0.0190256 129 137 96 255 
0.0433544 -0.0842953 0.0591636 0.916317 0.391323 0.0850281 52 43 44 255 
0.299038 -0.307179 -0.406155 0.77205 0.629835 0.0851276 117 131 82 255 
0.135368 -0.14225 0.427905 0.633364 0.773834 0.00554905 76 85 58 255 
-0.0148542 -0.0929373 0.711533 0.988789 0.0371001 0.144637 91 111 83 255 
0.0228821 -0.196569 -0.775924 0.963538 -0.131569 0.23299 115 119 84 255 
0.309728 -0.242607 0.441745 0.493929 0.806809 0.324183 128 146 104 255 
0.0443668 -0.263498 0.735777 0.895212 0.417527 -0.155779 148 162 126 255 
-0.00480086 0.270943 0.547549 0.989893 0.065674 -0.125694 57 53 41 255 
0.00646143 0.0176943 -0.387443 0.970576 0.239727 -0.0226661 47 43 44 255 
-0.0407232 -0.157151 0.704487 0.744713 0.17609 0.643735 98 116 76 255 
0.0193017 -0.00237554 -0.593666 0.990516 0.137376 0.0022514 48 39 40 255 
0.0694454 0.299809 -0.15744 0.978989 -0.142865 0.145502 63 49 46 255 
-0.0202795 0.269695 0.487642 0.987275 0.146825 -0.0610854 103 90 71 255 
0.0485905 -0.0682881 0.263538 0.887515 0.446016 -0.115705 71 57 56 255 
0.00783494 0.0371766 -0.365238 0.982633 0.184634 -0.0185242 45 45 35 255 
0.099256 0.358077 -0.392841 -0.228189 0.970508 -0.077744 59 53 41 255 
0.00457557 0.00248514 0.421191 0.921236 0.388986 -0.00370605 42 40 27 255 
-0.0181952 0.199288 0.327492 0.990483 0.126109 -0.0551311 60 58 33 255 
0.0309762 0.326875 0.0490077 0.982187 -0.158903 0.100289 83 87 50 255 
0.149233 -0.15804 -0.353474 0.682655 0.728544 0.0566178 60 55 52 255 
-0.00917271 -0.00835947 0.739552 0.992636 -0.0221699 0.119087 85 103 51 255 
0.00233195 -0.00513256 0.379703 0.889244 0.457347 -0.00885769 102 93 76 255 
0.0131349 0.10128 -0.477553 0.998197 0.056774 0.0194582 55 52 47 255 
0.0650865 0.322363 -0.172162 0.980973 -0.103938 0.163978 51 37 34 255 
0.28461 -0.295712 -0.379588 0.7709 0.633695 0.0643743 113 129 84 255 
-0.00408669 0.358865 -0.609366 0.997059 -0.055702 -0.0526347 67 58 51 255 
0.00763364 0.195635 0.0546464 0.988935 -0.127285 0.0762006 111 120 93 255 
0.00616492 0.168677 0.612224 0.999112 0.0411342 -0.00908922 129 139 102 255 
-0.0303925 0.0596086 0.818669 0.986743 0.0331029 0.15888 109 126 84 255 
-0.016759 0.214409 0.345916 0.962836 -0.191025 0.190937 70 74 47 255 
0.00261174 -0.00257592 0.398949 0.897797 0.440293 -0.0100956 71 75 50 255 
0.305532 -0.328007 -0.238639 0.718791 0.689328 0.0903689 50 55 23 255 
-0.0192532 0.206554 0.33516 0.990232 0.126134 -0.0594246 42 38 27 255 
0.213626 -0.213733 -0.344484 0.707779 0.700828 0.0888243 66 73 57 255 
-0.00133463 0.118186 -0.00529118 0.998314 -0.0409025 0.0411789 56 52 43 255 
0.0370073 -0.0363263 0.302191 0.889941 0.450941 -0.0682442 47 49 36 255 
0.00540251 0.00661388 0.431736 0.938187 0.346115 0.00299993 45 43 31 255 
0.00640395 -0.0163715 0.192334 0.945936 0.319407 -0.0564239 66 67 36 255 
0.0423873 -0.275896 0.725542 0.900767 0.432245 0.042229 138 153 122 255 
0.0156729 -0.0212409 -0.265103 0.978697 0.201832 0.0376217 47 42 38 255 
0.0130505 0.0741565 0.547044 0.999499 -0.02205 0.0227206 133 142 99 255 
0.129241 -0.173048 -0.0781002 0.729884 0.683494 0.0103192 120 127 96 255 
0.0124589 0.071753 -0.509751 0.993301 0.115102 0.0102758 46 39 31 255 
0.0191619 0.124833 -0.225035 0.994658 -0.0922813 -0.0462516 87 92 62 255 
0.00615446 0.033577 0.467154 0.988547 0.149755 0.0186513 45 37 26 255 
0.0673696 0.343148 -0.194433 0.980029 -0.0766775 0.183478 107 113 79 255 
-0.00742894 0.115478 0.255621 0.987274 0.159028 0.00110381 75 82 51 255 
0.0333598 0.340617 0.0461 0.98371 -0.155972 0.0893707 69 71 52 255 
0.0148417 -0.0296561 0.224413 0.933939 0.347811 -0.082372 58 63 33 255 
0.0234876 0.148613 -0.199428 0.984634 -0.174534 0.00575089 126 126 100 255 
-0.0385297 0.352827 0.396293 0.982206 0.172607 -0.0740219 59 60 42 255 
0.0112368 0.0275265 -0.0494672 0.902277 -0.429138 0.0416823 46 46 34 255 
0.219043 -0.266558 -0.0836897 0.757094 0.555334 0.344112 124 138 85 255 
-0.00565657 0.101569 0.232568 0.987086 0.159616 0.013575 88 93 70 255 
0.0180914 -0.0318143 -0.254511 0.973282 0.225005 0.0457627 48 45 43 255 
-0.00930294 0.129908 0.269577 0.988826 0.149077 -0.00034869 122 132 98 255 
0.0973516 0.368803 -0.361934 -0.650087 0.759313 -0.0288111 37 43 5 255 
0.0346122 0.352376 0.0432885 0.985208 -0.146986 0.088089 104 109 71 255 
0.00612517 0.0275963 -0.378079 0.974631 0.222785 -0.0214941 45 41 42 255 
0.0612483 -0.066185 -0.420449 0.842256 0.538873 -0.0148538 57 58 52 255 
0.0487082 -0.116475 0.129876 0.94033 0.340262 -0.000648191 102 85 75 255 
0.010867 0.0280097 -0.0393653 0.998022 0.0530462 0.0337307 48 49 42 255 
-0.0470218 0.412085 0.37212 0.984787 0.159887 -0.0680487 51 44 36 255 
0.118137 -0.136092 -0.365397 0.707015 0.70713 0.00984676 46 42 39 255 
0.0108677 -0.229666 -0.77557 0.92705 -0.185259 0.325971 89 93 60 255 
0.0223163 -0.0395122 0.243261 0.9273 0.364235 -0.0862931 64 68 45 255 
0.27789 -0.227619 0.464072 0.466965 0.842265 0.26932 144 157 127 255 
0.184134 -0.223378 -0.0659967 0.751984 0.630961 0.190812 145 153 112 255 
0.00780005 -0.00924108 -0.309027 0.984264 0.174549 0.0274963 45 36 27 255 
0.00689333 0.0240997 0.459124 0.980159 0.196984 0.0220458 94 104 54 255 
0.043142 -0.0843528 -0.811963 0.977954 -0.0383234 0.205272 126 120 88 255 
0.0131191 -0.0494649 0.550952 0.965901 0.157467 0.205525 48 49 31 255 
0.0267875 -0.0602087 0.0239108 0.935636 0.347147 0.063826 47 47 39 255 
-0.0353173 -0.148186 0.704551 0.864365 0.152018 0.479337 108 136 95 255 
0.0813792 -0.0917338 0.353018 0.764014 0.636553 -0.105276 44 46 25 255 
0.202022 -0.356769 0.17916 0.748335 0.639036 -0.177843 136 150 114 255 
0.0229512 -0.0484007 -0.241874 0.957684 0.28191 0.0580295 57 46 52 255 
0.0227325 -0.00847736 -0.664583 0.996786 0.0740173 0.0306471 58 53 33 255 
0.0895473 -0.276829 0.618909 0.799224 0.198053 0.567464 64 58 60 255 
0.00925381 0.0480225 -0.355739 0.989306 0.144893 -0.0166964 40 39 37 255 
-0.00433741 -0.0336964 0.684833 0.991513 0.126431 0.0302691 107 122 79 255 
0.0130372 -0.0390088 0.524404 0.970595 0.165448 0.174847 40 37 18 255 
0.0285226 -0.0221781 -0.794692 0.996059 0.0682128 0.0566961 78 69 38 255 
0.00956633 -0.250931 -0.776706 0.974957 -0.219966 -0.0327725 138 144 106 255 
0.196492 -0.382825 0.0460595 0.999015 -0.0423111 0.0133876 71 81 20 255 
0.0238723 0.133364 -0.212438 0.990152 -0.137363 -0.0270426 87 92 62 255 
0.00829331 0.0462391 0.490546 0.996865 0.0754135 0.0239239 88 97 52 255 
0.30469 -0.333706 -0.27741 0.784895 0.615085 0.074897 62 53 44 255 
0.17518 -0.220994 -0.0725615 0.737058 0.639031 0.219969 136 144 103 255 
0.0351912 -0.289899 0.704434 0.890561 0.318612 0.324635 120 131 97 255 
-0.00555104 0.359561 -0.588591 0.994423 0.0633156 -0.0843473 41 39 14 255 
-0.02585 0.0505654 0.811256 0.989784 0.03135 0.139083 110 127 85 255 
0.169751 -0.209695 -0.0643999 0.747078 0.656745 0.102765 157 163 135 255 
0.266463 -0.27282 -0.355588 0.741687 0.662996 0.101669 60 39 54 255 
0.0780206 -0.0932332 -0.397978 0.798509 0.601379 -0.0269513 53 56 39 255 
0.000473718 0.105761 -0.0188579 0.999096 -0.0208857 0.0370184 56 59 52 255 
0.265509 -0.262893 -0.358812 0.715815 0.679595 0.160498 85 84 63 255 
0.00394394 0.178078 0.0468722 0.990473 -0.115175 0.0754871 108 89 82 255 
0.0119134 0.053589 -0.345277 0.993511 0.112696 -0.0153446 60 60 50 255 
0.102128 -0.1197 0.392717 0.732617 0.672009 -0.108055 53 52 32 255 
0.00782661 0.00586194 0.447592 0.953391 0.301248 0.0171932 104 117 71 255 
0.00703773 0.0402682 0.478591 0.993878 0.10843 0.0211829 50 53 22 255 
0.0554086 0.239793 -0.151702 0.966956 -0.23126 0.107304 79 80 62 255 
0.00166537 -0.031798 0.555175 0.879984 0.283457 0.381157 43 44 28 255 
-0.0192137 0.25293 0.396752 0.97251 0.1371 0.188223 64 56 45 255 
0.0274071 -0.0174145 -0.439148 0.932104 0.362074 -0.00916014 44 44 31 255 
-0.0199878 0.18706 0.311562 0.98794 0.140387 -0.0653145 45 41 38 255 
0.181092 -0.17124 0.467747 0.485381 0.851495 0.198396 91 104 78 255 
0.0123238 0.0833756 0.559613 0.999584 -0.0193121 0.0214356 151 165 132 255 
0.0129866 0.0566318 -0.530986 0.990505 0.137454 0.00265269 45 41 30 255 
0.32378 -0.245174 0.418662 0.520134 0.781827 0.343813 62 71 40 255 
0.297489 -0.334276 -0.315414 0.848733 0.52853 0.0175553 58 47 43 255 
0.198506 -0.186005 0.475002 0.457643 0.850553 0.259079 120 136 97 255 
-0.0317484 0.324513 0.399303 0.983596 0.161968 -0.0794058 83 88 68 255 
0.0100353 0.0511098 0.502838 0.998662 0.0411803 0.0312755 45 38 28 255 
0.0231439 -0.00864796 -0.624733 0.991003 0.133788 0.00384527 115 121 77 255 
-0.00406508 -0.0253393 0.587454 0.99093 -0.0520446 0.123889 96 107 64 255 
0.0921672 -0.109696 0.377976 0.75158 0.649915 -0.112863 72 71 51 255 
0.0121968 0.222342 0.0611687 0.986107 -0.144864 0.0812803 77 68 59 255 
0.0127104 0.0659383 0.534198 0.999607 -0.0160753 0.0229645 121 127 89 255 
0.0153738 0.250416 0.0620752 0.98288 -0.155211 0.0992834 71 74 57 255 
0.184121 -0.375484 0.000738831 0.991083 -0.132375 0.0151825 105 97 76 255 
0.0284346 0.314911 0.0514392 0.98098 -0.159754 0.110256 150 155 115 255 
0.0122501 0.0977254 -0.277235 0.997235 0.0092462 -0.0737312 150 159 112 255 
0.0432769 -0.121936 -0.790124 0.965512 -0.0625857 0.252725 75 76 45 255 
0.0828766 0.36722 -0.238765 0.980943 -0.0563444 0.185945 83 70 61 255 
0.00434478 0.0201983 0.0667405 0.984534 0.173608 0.0235043 88 90 53 255 
0.0452608 -0.0496361 0.289986 0.880467 0.46519 -0.0915233 86 84 63 255 
0.0372135 -0.149043 -0.782137 0.973598 -0.072518 0.216445 119 126 84 255 
-0.00239551 0.274658 0.523873 0.987542 0.0371019 -0.152918 45 45 21 255 
0.035722 -0.298148 0.673849 0.953074 0.287585 0.0945754 94 108 73 255 
0.0192802 -0.0086865 -0.525151 0.98172 0.189331 -0.0194895 123 132 77 255 
-0.0459992 0.104104 0.824728 0.960762 0.161007 0.22586 158 134 96 255 
0.168602 -0.173454 -0.349133 0.683377 0.727717 0.0585091 134 141 107 255 
-0.00405574 -0.300529 -0.782107 0.968148 -0.244523 -0.0538374 131 137 101 255 
0.178502 -0.182306 -0.347625 0.687586 0.723625 0.059931 57 65 54 255 
0.101368 -0.143076 -0.105317 0.747618 0.663739 -0.0227397 107 104 73 255 
0.151664 -0.14866 0.444478 0.587279 0.805339 0.080826 69 73 56 255 
0.0515023 -0.0994377 -0.151708 0.844122 0.535705 -0.021871 56 54 55 255 
0.0441495 0.218698 -0.158638 0.964212 -0.251003 0.0853953 93 100 93 255 
0.136444 -0.148971 -0.357606 0.690418 0.722023 0.0447974 131 138 94 255 
-0.000999802 0.152307 0.02959 0.993592 -0.0907685 0.0673481 129 139 105 255 
0.00841768 0.131128 0.598425 0.999772 0.0139384 0.0161814 186 201 158 255 
-0.0102065 0.336344 -0.692303 0.982519 -0.185041 0.0204175 95 82 65 255 
0.0669596 -0.153204 0.189966 0.933574 0.344885 -0.0974343 91 82 67 255 
0.0225492 -0.0226934 -0.479806 0.961223 0.273976 -0.0314398 42 31 29 255 
0.230363 -0.20766 0.476639 0.454992 0.836179 0.306247 128 143 112 255 
0.0871761 0.371055 -0.259348 0.981877 -0.055071 0.181342 73 70 37 255 
0.0104853 0.0272206 -0.0268106 0.967554 -0.24881 0.0439658 48 45 40 255 
0.0120599 0.0640246 -0.520819 0.991109 0.132962 0.00491162 46 42 31 255 
0.00999006 -0.0254674 0.209386 0.934848 0.345567 -0.0814964 87 84 53 255 
0.098073 0.352151 -0.402686 -0.0629024 0.988953 -0.134217 113 117 82 255 
0.0036448 0.194263 0.614853 0.99764 0.0619789 -0.0295418 120 137 95 255 
0.014352 0.0653908 -0.331879 0.997521 0.0674825 -0.0199472 45 37 34 255 
0.0322077 -0.162439 -0.779799 0.974449 -0.0895914 0.205965 119 127 86 255 
-0.0198488 0.269826 0.387928 0.972723 0.135042 0.188608 131 141 104 255 
0.274 -0.277482 -0.366167 0.738169 0.664201 0.118082 69 71 57 255 
0.149828 -0.191437 -0.0674796 0.732227 0.679668 0.0435276 137 145 106 255 
0.342386 -0.220313 0.340844 0.407497 0.873004 0.267975 111 117 79 255 
-0.0206977 0.172384 0.297811 0.988921 0.141108 -0.046085 49 40 31 255 
0.290571 -0.325 -0.174943 0.714465 0.68964 0.118053 44 40 28 255 
-0.040406 0.3839 0.385124 0.985644 0.152096 -0.0733042 112 124 88 255 
0.204115 -0.372715 0.143211 0.815097 0.573614 -0.0811409 140 140 96 255 
0.0653476 0.267426 -0.149881 0.972014 -0.199754 0.123638 91 95 68 255 
0.338345 -0.239651 0.393885 0.489436 0.81388 0.313133 73 90 46 255 
0.19842 -0.236858 -0.0700527 0.744251 0.613439 0.264165 140 148 107 255 
0.0435913 -0.0478556 0.318083 0.857518 0.509524 -0.0710473 65 73 52 255 
0.0185265 -0.207591 -0.77575 0.952687 -0.152137 0.263138 86 86 58 255 
0.201037 -0.3675 0.161987 0.778798 0.620099 -0.0946067 140 141 99 255 
0.0417955 -0.136388 -0.78533 0.967666 -0.0639564 0.243992 80 81 50 255 
0.0897487 -0.129071 -0.116886 0.761935 0.647214 -0.0238483 53 43 41 255 
0.0474402 -0.0940627 -0.16268 0.867808 0.496717 -0.0134401 46 39 31 255 
0.0102263 0.109316 -0.25655 0.997032 -0.00165878 -0.0769703 49 38 36 255 
-0.02306 -0.122299 0.707725 0.96826 0.0888375 0.233626 116 138 99 255 
0.17029 -0.16527 0.461004 0.510726 0.837995 0.192153 49 50 36 255 
0.141316 -0.18388 -0.0708536 0.72963 0.682876 0.0363409 146 153 119 255 
0.159258 -0.165687 -0.350971 0.68246 0.728414 0.0605048 56 56 56 255 
0.0352387 -0.293706 0.69279 0.91666 0.284312 0.280894 108 125 89 255 
0.256518 -0.219035 0.472976 0.46151 0.840548 0.283703 64 79 50 255 
-0.00414448 -0.0239051 0.605001 0.99258 -0.0730574 0.0971966 35 36 18 255 
0.057961 0.469172 -0.127635 0.987227 0.0228501 0.157673 89 92 49 255 
-0.0483054 0.425902 0.365371 0.986924 0.149825 -0.0594364 94 101 67 255 
0.343313 -0.230926 0.374207 0.462047 0.828446 0.316528 106 114 77 255 
0.0376416 -0.282986 0.717844 0.894617 0.388295 0.221104 115 131 86 255 
-0.00615651 0.355821 -0.545842 0.98263 0.0895671 -0.162532 53 41 26 255 
-0.00228483 0.13774 0.0160759 0.995902 -0.0715291 0.0553499 131 115 100 255 
0.0183462 -0.0182692 0.328878 0.898999 0.437401 -0.0219337 80 84 51 255 
-0.00756005 0.0846788 0.192748 0.986797 0.157508 0.0377169 88 89 55 255 
0.00209005 0.169007 0.0416904 0.991673 -0.10508 0.0744527 104 107 86 255 
0.053538 0.467833 -0.103174 0.987067 0.0211619 0.158907 82 89 37 255 
0.0117533 -0.015134 -0.435249 0.963026 0.267121 -0.0350305 38 34 9 255 
0.191718 -0.177071 0.472568 0.476571 0.855952 0.200563 111 124 94 255 
-0.0263455 0.026965 0.777263 0.984751 -0.0135443 0.17344 100 114 63 255 
0.0964708 -0.117217 -0.378852 0.748542 0.662806 -0.0193269 145 160 119 255 
-0.0049832 0.358315 -0.565703 0.984917 0.105318 -0.137281 54 42 30 255 
0.110826 -0.125882 0.402645 0.714344 0.692683 -0.0995185 105 115 81 255 
0.189501 -0.192595 -0.346294 0.691294 0.718652 0.0751844 70 73 56 255 
0.201681 -0.383102 0.0820402 0.999771 0.0160111 0.0142223 72 78 30 255 
0.306012 -0.32955 -0.249325 0.733664 0.67352 0.0900436 54 54 30 255 
-0.0143831 0.272858 0.497295 0.98882 0.122981 -0.0843284 45 48 27 255 
0.286231 -0.315115 -0.156885 0.678136 0.727802 0.102162 100 110 75 255 
-0.0117543 0.321567 -0.716543 0.921096 -0.380704 0.0815233 94 76 62 255 
0.200484 -0.259646 -0.0778967 0.748551 0.544564 0.378313 98 104 68 255 
-0.0124447 0.257692 0.576673 0.987451 0.155178 -0.0293294 56 56 28 255 
0.00942459 -0.00366751 0.144559 0.966579 0.256316 0.00522087 117 121 86 255 
0.00289268 0.0927242 -0.0313836 0.992454 0.117626 0.0346358 45 46 28 255 
-0.0166936 0.257613 0.379917 0.972854 0.13963 0.184547 59 55 52 255 
0.0273722 -0.176266 -0.777158 0.970973 -0.109893 0.21245 114 118 81 255 
0.00521451 -0.0124303 0.180988 0.950791 0.306855 -0.0428564 51 54 25 255 
-0.0425715 0.395264 0.380244 0.985971 0.151101 -0.070916 64 69 46 255 
0.049953 0.457482 -0.0593353 0.988679 -0.018797 0.148863 51 48 29 255 
0.000397917 0.160356 0.035879 0.992368 -0.100008 0.0721371 73 74 60 255 
0.055318 -0.125251 0.152495 0.934213 0.354562 -0.0391372 57 57 47 255 
0.0651582 0.458254 -0.183177 0.986919 0.040792 0.155969 70 71 37 255 
0.0358111 -0.0698394 -0.21723 0.925091 0.376467 0.0497894 47 43 40 255 
0.00767119 0.145097 0.604798 0.999676 0.0238061 0.00900415 121 133 95 255 
0.0126021 0.0915443 -0.289785 0.997633 0.019456 -0.0659608 63 67 34 255 
-0.0402161 0.0827158 0.825953 0.97342 0.0920126 0.209731 149 163 128 255 
0.234382 -0.230065 -0.345855 0.715124 0.688289 0.121883 62 66 51 255 
0.00473048 0.214237 -0.452787 0.984952 -0.0534311 -0.164363 89 77 63 255 
0.0594105 -0.139291 0.174517 0.939692 0.33405 -0.0734168 48 39 34 255 
-0.0311834 0.308837 0.399643 0.95688 0.195886 0.2145 80 87 69 255 
0.0104471 0.210315 0.058951 0.987651 -0.136566 0.0767841 84 91 58 255 
0.0329854 -0.0246343 -0.820672 0.995571 0.0515373 0.0786281 86 81 25 255 
0.298456 -0.236183 0.455086 0.467949 0.838887 0.278016 130 147 105 255 
-0.0109403 0.353506 -0.634423 0.992658 0.113362 -0.0421844 105 102 67 255 
-0.0520811 0.437893 0.3567 0.985207 0.16182 -0.0564016 60 54 38 255 
0.343937 -0.224626 0.357298 0.417687 0.86296 0.28432 134 142 118 255 
0.00699975 0.157486 0.609197 0.999479 0.0322763 8.06243e-005 124 130 92 255 
0.244414 -0.299135 -0.110502 0.796071 0.523581 0.303535 159 169 134 255 
-0.0132943 0.24553 0.371759 0.972144 0.138099 0.189378 154 162 138 255 
0.0624354 -0.0647192 0.31324 0.818316 0.566176 -0.0990146 51 52 34 255 
-0.0236332 0.0396214 0.798734 0.98911 0.0186953 0.145984 88 103 53 255 
0.00568583 -0.00709385 0.164904 0.958996 0.282755 -0.0194199 65 71 34 255 
0.244663 -0.238726 -0.348349 0.712239 0.686276 0.147449 65 66 50 255 
0.30201 -0.334693 -0.296793 0.819571 0.570868 0.0491269 58 38 50 255 
0.201747 -0.203792 -0.345098 0.700042 0.709601 0.0800434 69 65 56 255 
0.0395496 -0.0758485 -0.205995 0.912138 0.40806 0.0386281 56 45 49 255 
0.0961861 0.373222 -0.339281 0.921349 -0.385763 0.0479833 52 42 41 255 
-0.00742685 0.274856 0.506876 0.989475 0.0788936 -0.121307 29 32 5 255 
0.0365497 -0.0767305 0.0423791 0.923473 0.374856 0.0817408 48 43 40 255 
0.0459783 -0.0952029 0.08945 0.92024 0.386966 0.0584478 77 66 60 255 
0.00897113 0.206696 0.0493539 0.986108 -0.138055 0.0923643 110 117 83 255 
0.0224039 -0.00903558 -0.696661 0.996018 0.0825928 0.0335517 27 14 6 255 
0.339043 -0.217429 0.324943 0.297604 0.936754 0.184183 113 119 81 255 
0.0465089 -0.103106 0.105658 0.930859 0.364104 0.0304955 50 42 39 255 
0.0901589 0.374413 -0.284548 0.983787 -0.0724327 0.164064 56 40 40 255 
0.0539288 -0.107022 -0.143889 0.821276 0.569074 -0.0407633 59 58 53 255 
0.0228908 -0.00777894 -0.637833 0.994442 0.104231 0.0148459 72 67 38 255 
0.0116766 0.0902113 0.56695 0.999764 -0.0140901 0.0165308 90 79 61 255 
-0.0168917 -0.103787 0.710726 0.984665 0.0561342 0.16518 108 129 96 255 
0.225823 -0.277763 -0.090423 0.773735 0.526973 0.351616 134 146 101 255 
0.0223192 -0.00984854 -0.76296 0.99343 0.111415 0.0261331 99 92 64 255 
0.0369388 0.172639 -0.172534 0.96923 -0.243037 0.0390742 76 80 55 255 
0.0114452 0.0562645 0.514922 0.999263 0.0143232 0.0356156 133 144 95 255 
0.0450457 -0.102645 -0.800447 0.964862 -0.0582477 0.256221 106 95 73 255 
0.0477891 -0.110493 0.119363 0.934972 0.354533 0.0115273 49 42 32 255 
0.0222086 0.288699 0.0565871 0.978352 -0.15997 0.131291 108 115 74 255 
0.0225633 -0.00899547 -0.679185 0.996567 0.0761651 0.032463 116 113 70 255 
0.0791283 -0.0829191 0.344969 0.767938 0.633095 -0.0972697 46 47 31 255 
0.00166768 0.326713 -0.769034 -0.794211 0.585578 -0.162255 110 93 75 255 
0.0528507 0.463948 -0.0813608 0.988082 -0.00764511 0.15374 91 97 51 255 
0.0150978 0.0748717 -0.317676 0.998979 0.0327436 -0.0311267 155 161 115 255 
0.0321067 -0.0696636 0.0349458 0.928152 0.364667 0.0745123 50 51 37 255 
-0.00614254 0.0896763 0.20605 0.98683 0.158596 0.0318295 84 84 56 255 
0.0245811 0.298598 0.0546657 0.978843 -0.160333 0.127119 57 51 39 255 
0.006194 -0.00934573 0.35502 0.892855 0.450312 -0.00543576 47 43 32 255 
0.0109642 0.103256 -0.26795 0.996753 0.00937574 -0.0799685 62 66 39 255 
-0.0121163 0.31501 -0.741094 0.885201 -0.451713 0.111239 100 85 62 255 
0.114356 -0.158285 -0.0913471 0.735625 0.677327 -0.00913772 54 45 46 255 
0.122518 -0.136606 0.415864 0.672618 0.737687 -0.05834 114 118 95 255 
0.207764 -0.194463 0.477084 0.445593 0.844292 0.297688 60 72 50 255 
0.0440163 0.449609 -0.0372347 0.986893 -0.00866388 0.161144 52 44 41 255 
0.0620931 0.465416 -0.154299 0.986616 0.0228631 0.161453 96 96 60 255 
0.253494 -0.334397 -0.829313 0.176345 -0.148213 0.973106 78 65 72 255 
0.0218935 -0.00801062 -0.608435 0.990089 0.140426 0.00206516 95 93 68 255 
0.0227078 -0.00938257 -0.71614 0.995473 0.0885063 0.0346523 108 111 64 255 
0.233619 -0.288696 -0.0986538 0.78944 0.499709 0.356476 164 172 133 255 
-0.0353968 0.0701937 0.823418 0.980338 0.0600125 0.187981 150 164 129 255 
-0.0120293 0.345841 -0.664497 0.983446 0.172439 -0.055674 97 84 65 255 
0.209718 -0.376364 0.117094 0.978014 0.206184 0.0312644 143 159 122 255 
0.0137389 0.235205 0.0623221 0.984387 -0.151581 0.0894729 93 99 65 255 
-0.038564 0.362972 0.393016 0.983524 0.164528 -0.0749018 77 86 57 255 
0.00909674 -0.0128949 -0.293749 0.984193 0.173169 0.0371125 80 80 70 255 
0.0114466 -0.0213107 0.53659 0.98429 0.101677 0.144342 116 102 75 255 
0.205538 -0.245849 -0.0735561 0.743101 0.599475 0.297374 136 147 107 255 
0.0144421 0.0834391 -0.30269 0.998765 0.0149313 -0.0473841 89 93 70 255 
0.019822 0.278294 0.0585077 0.978676 -0.159291 0.129687 103 110 69 255 
-0.00207253 -0.037372 0.631653 0.993466 -0.051075 0.102067 82 91 46 255 
-0.0164817 0.15415 0.287831 0.989914 0.140742 -0.0162088 48 43 40 255 
0.00903335 0.11836 0.590787 0.999746 0.00436418 0.0221185 133 146 103 255 
0.212494 -0.255877 -0.0781132 0.744854 0.581155 0.327797 126 138 98 255 
-0.0262178 0.265062 0.475944 0.987107 0.152715 -0.0479403 93 77 61 255 
0.0766923 -0.170838 0.203152 0.925253 0.361315 -0.11558 93 97 74 255 
0.302196 -0.327174 -0.214831 0.706482 0.701925 0.0904685 50 53 22 255 
0.297512 -0.327826 -0.197393 0.712056 0.694512 0.103104 87 88 72 255 
0.0929626 0.375456 -0.311071 0.983096 -0.141672 0.115983 60 45 48 255 
-0.000409253 -0.0308075 0.565694 0.989801 -0.0139396 0.141773 76 80 47 255 
0.0390393 -0.0611669 -0.821766 0.990983 -0.00194502 0.133977 78 66 26 255 
0.0178258 0.2684 0.0601022 0.979613 -0.159187 0.122548 63 56 48 255 
0.0453079 -0.0888429 0.0743232 0.916772 0.392682 0.0730107 56 49 39 255 
-0.00519443 0.0954638 0.219857 0.987019 0.158902 0.0233252 177 183 135 255 
0.0107342 0.0986297 0.574815 0.999861 -0.00788004 0.0146621 131 138 104 255 
0.0224508 -0.0093775 -0.73762 0.994752 0.0968901 0.032863 57 52 20 255 
0.269791 -0.277057 -0.356267 0.745732 0.659094 0.0973624 132 136 101 255 
0.224024 -0.221675 -0.344583 0.712912 0.693674 0.102826 93 82 60 255 
0.0126081 0.117182 -0.240219 0.997361 -0.0418072 -0.0593615 67 75 38 255 
0.255278 -0.249299 -0.352492 0.707924 0.685626 0.169592 61 63 50 255 
0.0150628 0.0488138 -0.537977 0.990983 0.133968 0.00249126 50 46 37 255 
-0.00318918 -0.0280843 0.576692 0.990703 -0.045404 0.128246 75 82 49 255 
0.0070275 0.0105296 -0.135819 0.86606 -0.497262 0.051676 64 53 59 255 
-0.00761246 0.345846 -0.512699 -0.820331 0.528834 0.217697 96 84 60 255 
0.0237145 -0.00910473 -0.650764 0.9953 0.0948071 0.0197141 92 94 58 255 
0.0431364 0.206209 -0.162858 0.961896 -0.263758 0.0720266 49 41 30 255 
0.00979011 0.107559 0.582666 0.999777 -0.00205541 0.0210068 143 156 112 255 
-0.0400431 0.372978 0.389422 0.983905 0.162504 -0.0743134 53 45 42 255 
-0.00355176 0.351884 -0.529924 0.92225 -0.328345 -0.20407 63 53 28 255 
0.0100047 -0.005487 -0.328358 0.978224 0.207254 0.0110862 44 40 29 255 
0.175326 -0.333735 0.215373 0.725751 0.667411 -0.166881 154 157 130 255 
0.0121395 -0.0153705 -0.280945 0.982259 0.183317 0.039515 44 43 38 255 
