ply
format ascii 1.0
comment VCGLIB generated
element vertex 649
property float x
property float y
property float z
property float nx
property float ny
property float nz
property uchar red
property uchar green
property uchar blue
property uchar alpha
element face 0
property list uchar int vertex_indices
end_header
-0.509257 -0.255338 0.77966 0.864739 0.145198 -0.480774 255 255 255 255 
-0.442174 -0.72906 -0.520757 0.947934 0.252812 0.193669 255 255 255 255 
-0.568521 -0.714187 0.217618 0 0 0 255 255 255 255 
-0.735807 -0.125465 -0.177291 -0.787635 -0.38274 -0.482848 255 255 255 255 
-0.578027 -0.608464 0.857017 0.331396 -0.263527 -0.905941 255 255 255 255 
-0.472381 -0.343198 -0.69962 0.910708 0.272929 0.310034 255 255 255 255 
-0.526277 -0.520527 -0.211025 0.858077 0.0735969 -0.50822 255 255 255 255 
-0.436271 -0.848354 -0.344194 0 0 0 255 255 255 255 
-0.565454 0.150228 0.900104 0.704332 0.39871 -0.587322 255 255 255 255 
-0.845134 0.191398 0.063135 -0.835614 0.413126 -0.362045 255 255 255 255 
-0.623261 -0.321424 0.0872849 0.654121 -0.279697 -0.702777 255 255 255 255 
-0.630314 0.246598 0.912754 0.483106 0.590953 -0.646052 255 255 255 255 
-0.684977 0.245218 0.884617 0.2443 0.649317 -0.720212 255 255 255 255 
-0.690881 0.0521716 0.761644 0.651457 -0.398101 -0.645847 255 255 255 255 
-0.428604 -0.417181 0.915437 0.728998 -0.069473 -0.680981 255 255 255 255 
-0.516847 -0.200828 -0.578027 0.979696 0.193882 0.0510486 255 255 255 255 
-0.687584 -0.233795 -0.162725 -0.952862 0.0876282 -0.290474 255 255 255 255 
-0.518381 -0.237935 -0.649634 0.775822 0.483794 -0.405023 255 255 255 255 
-0.750144 0.0805382 0.455668 0.397878 -0.831907 -0.386813 255 255 255 255 
-0.592287 -0.314831 -0.68444 -0.754561 0.330156 -0.567129 255 255 255 255 
-0.544754 -0.261548 0.756967 0.565036 0.301721 -0.767918 255 255 255 255 
-0.497834 -0.823284 0.245371 0.576151 0.59665 -0.558622 255 255 255 255 
-0.641201 -0.000114981 0.77828 0.507724 0.308421 -0.804421 255 255 255 255 
-0.656611 0.252961 0.0579983 0.619544 0.731558 -0.284584 255 255 255 255 
-0.702074 -0.381684 0.174301 -0.964209 -0.207835 -0.164638 255 255 255 255 
-0.545214 -0.108368 -0.395561 0.976439 -0.184803 0.111417 255 255 255 255 
-0.701001 0.285621 0.0863649 0.268155 0.899184 -0.345775 255 255 255 255 
-0.932763 0.152835 0.93836 -0.835119 0.317599 -0.449118 255 255 255 255 
-0.687047 0.162648 0.826887 0.274803 0.458332 -0.845231 255 255 255 255 
-0.463181 -0.855714 -0.380074 0 0 0 255 255 255 255 
-0.75252 -0.189328 -0.0113849 -0.782121 -0.613917 -0.106734 255 255 255 255 
-0.519991 -0.245908 -0.660674 0.675314 0.494054 -0.547596 255 255 255 255 
-0.710737 0.306015 0.134665 0.00205617 0.99826 -0.0589322 255 255 255 255 
-0.495841 -0.158661 0.87028 0.909507 -0.0560563 -0.411892 255 255 255 255 
-0.669491 0.00877835 0.727604 0.999748 0.00737981 -0.0212067 255 255 255 255 
-0.581631 -0.167785 -0.0313949 0 0 0 255 255 255 255 
-0.71503 -0.303101 0.130985 -0.976411 -0.21589 -0.00365388 255 255 255 255 
-0.700617 -0.520527 -0.162188 -0.997296 -0.0475967 -0.0559904 255 255 255 255 
-0.554414 -0.368268 0.695481 0.549774 0.375747 -0.746032 255 255 255 255 
-0.755434 0.216468 0.856327 -0.105605 0.597895 -0.794588 255 255 255 255 
-0.593437 -0.77644 -0.248285 -0.705955 0.667221 -0.237579 255 255 255 255 
-0.656227 -0.0579215 -0.384368 -0.532647 0.816412 -0.223067 255 255 255 255 
-0.636754 -0.382374 0.637137 0.174185 0.342568 -0.923204 255 255 255 255 
-0.701077 0.209951 -0.0704948 -0.00505273 0.937863 -0.346968 255 255 255 255 
-0.672787 0.0987849 0.624181 0.960815 -0.229065 -0.156092 255 255 255 255 
-0.446698 -0.641047 -0.644881 0.651462 -0.379142 -0.657152 255 255 255 255 
-0.514317 -0.284625 0.768314 0.763753 0.28672 -0.578336 255 255 255 255 
-0.624871 0.209491 0.136658 0.987725 0.0999805 0.120013 255 255 255 255 
-0.509947 -0.84958 -0.477901 0.0303231 -0.916965 -0.397813 255 255 255 255 
-0.452984 -0.426458 -0.9126 0.430025 0.899783 -0.0739589 255 255 255 255 
-0.574501 -0.320811 0.697321 0.666585 0.309364 -0.678202 255 255 255 255 
-0.86867 -0.246445 0.734964 0.0805038 -0.485257 -0.870658 255 255 255 255 
-0.565224 -0.0591482 -0.331928 0.701713 0.712411 0.0084076 255 255 255 255 
-0.685667 -0.202131 0.692337 0.116971 0.335999 -0.934571 255 255 255 255 
-0.533637 -0.565914 0.103538 0.920393 0.383704 -0.0751559 255 255 255 255 
-0.504811 -0.818607 0.396558 0.974869 -0.203368 0.0909473 255 255 255 255 
-0.563077 -0.200981 -0.646414 0.0935397 0.624236 -0.775616 255 255 255 255 
-0.584161 0.0796182 0.496454 -0.188471 0.952353 -0.239798 255 255 255 255 
-0.509257 -0.589144 -0.126921 0.977088 -0.177437 0.117541 255 255 255 255 
-0.594664 -0.0173649 -0.204585 0.440457 0.778274 -0.447534 255 255 255 255 
-0.614214 -0.240848 0.037145 0.776475 -0.468582 -0.421329 255 255 255 255 
-0.785794 -0.0323149 0.0179017 -0.687302 -0.397822 0.607745 255 255 255 255 
-0.884157 -0.560624 0.94227 -0.824689 -0.335788 -0.45512 255 255 255 255 
-0.70652 -0.322804 0.661287 -0.198707 0.242366 -0.949618 255 255 255 255 
-0.635374 -0.404224 0.105915 0.233712 -0.0275367 -0.971916 255 255 255 255 
-0.494998 -0.133821 0.86453 0.849223 0.241963 -0.469334 255 255 255 255 
-0.591521 -0.493081 -0.244145 0.230171 0.271404 -0.934538 255 255 255 255 
-0.690804 0.301798 0.145628 0.364714 0.896069 -0.253069 255 255 255 255 
-0.774677 0.279488 0.0797716 -0.241288 0.829401 -0.50386 255 255 255 255 
-0.510867 -0.0257216 0.876874 0.708958 0.281736 -0.646532 255 255 255 255 
-0.553034 -0.548051 0.609231 0.6305 0.419497 -0.653064 255 255 255 255 
-0.83141 0.297505 0.468011 -0.417923 0.880645 0.223168 255 255 255 255 
-0.658911 -0.412658 0.235405 -0.275913 -0.12963 0.952401 255 255 255 255 
-0.702457 -0.350098 0.651321 -0.21653 0.325177 -0.920529 255 255 255 255 
-0.733047 -0.227815 0.058305 -0.954695 -0.297348 0.0119038 255 255 255 255 
-0.927703 0.164871 0.465864 -0.976189 0.106483 -0.188988 255 255 255 255 
-0.754284 -0.102465 0.660444 0.355431 -0.480651 -0.801651 255 255 255 255 
-0.603864 -0.455131 -0.229425 0.120949 0.40742 -0.905196 255 255 255 255 
-0.674627 -0.339748 0.651857 -0.158 0.196422 -0.967706 255 255 255 255 
-0.520911 -0.198451 -0.608081 0.867948 0.423 -0.260263 255 255 255 255 
-0.519377 -0.605551 0.102618 0.892904 0.319519 0.317221 255 255 255 255 
-0.9333 0.0379883 0.650017 0 0 0 255 255 255 255 
-0.521141 -0.902864 0.327788 0.553161 -0.820214 0.145813 255 255 255 255 
-0.572507 -0.668647 0.465481 0.622842 0.667022 -0.40884 255 255 255 255 
-0.666347 -0.754054 -0.105531 -0.745594 0.276285 -0.606428 255 255 255 255 
-0.642121 -0.0244183 0.769004 0.487428 0.292288 -0.822789 255 255 255 255 
-0.633687 0.191935 0.868517 0.463099 0.501463 -0.730804 255 255 255 255 
-0.609997 -0.173228 -0.421244 -0.0331678 -0.967163 0.251985 255 255 255 255 
-0.563614 -0.304328 -0.220378 0.684401 0.310568 -0.659653 255 255 255 255 
-0.542531 -0.625714 -0.164335 0.694249 -0.597585 -0.401136 255 255 255 255 
-0.82152 0.0584583 -0.0657415 0 0 0 255 255 255 255 
-0.677694 0.151301 0.822977 0.312771 0.435649 -0.844029 255 255 255 255 
-0.669567 -0.640511 -0.0198182 -0.635496 0.624158 -0.454502 255 255 255 255 
-0.579867 -0.554031 0.832484 0.377349 -0.387978 -0.840881 255 255 255 255 
-0.481121 -0.379231 -0.753057 0.74706 0.610051 -0.264082 255 255 255 255 
-0.509794 -0.760494 0.434738 0.784122 0.55836 -0.270899 255 255 255 255 
-0.445011 -0.504274 -0.7769 0.994567 0.0294282 0.0998568 255 255 255 255 
-0.519147 -0.497451 -0.131445 0.876955 0.410055 0.250609 255 255 255 255 
-0.75344 -0.0842182 -0.173305 -0.842074 -0.141448 -0.520484 255 255 255 255 
-0.753747 -0.176985 -0.0734081 -0.772779 -0.472798 -0.423408 255 255 255 255 
-0.568214 -0.294284 -0.70675 -0.204236 0.484439 -0.850651 255 255 255 255 
-0.562847 -0.150765 -0.597884 0.309809 0.644239 -0.699267 255 255 255 255 
-0.560547 -0.160655 -0.604017 0.332951 0.73621 -0.589185 255 255 255 255 
-0.90064 0.228811 0.502204 -0.881002 0.459411 0.11303 255 255 255 255 
-0.71181 -0.830337 0.0032584 -0.962883 0.142767 -0.229073 255 255 255 255 
-0.499981 -0.439031 0.737954 -0.323067 0.468233 -0.822427 255 255 255 255 
-0.506037 -0.774907 0.486794 0 0 0 255 255 255 255 
-0.499598 -0.301414 0.853567 0.649727 0.140174 -0.747132 255 255 255 255 
-0.713114 0.000728356 0.608541 0.576199 -0.557163 -0.597967 255 255 255 255 
-0.495918 -0.326254 0.85464 0.675836 0.0361545 -0.736165 255 255 255 255 
-0.440104 -0.738644 -0.504044 0.955962 0.221593 0.19244 255 255 255 255 
-0.540844 -0.130985 -0.452064 0.988618 -0.092351 0.118768 255 255 255 255 
-0.557404 -0.699161 0.439184 0.256387 0.853593 -0.453481 255 255 255 255 
-0.78955 -0.0256449 -0.128991 -0.881052 -0.06968 -0.467859 255 255 255 255 
-0.567831 -0.332464 -0.228428 0.703371 0.143585 -0.69617 255 255 255 255 
-0.70629 -0.376778 -0.130371 -0.829372 -0.295194 0.474344 255 255 255 255 
-0.630391 -0.792694 -0.179591 -0.876578 0.0555819 -0.47804 255 255 255 255 
-0.961207 -0.258405 0.927627 -0.824121 -0.119918 -0.553574 255 255 255 255 
-0.627937 -0.659294 -0.128225 -0.717902 -0.383462 -0.58101 255 255 255 255 
-0.484264 -0.417411 -0.886763 0.00396152 0.968785 -0.247871 255 255 255 255 
-0.615441 -0.0391382 -0.336068 0.0169961 0.995364 -0.0946609 255 255 255 255 
-0.537317 -0.621267 -0.00187826 0.51935 0.816114 -0.253445 255 255 255 255 
-0.673707 0.176295 0.445088 0.992046 0.0422342 0.118583 255 255 255 255 
-0.807567 0.302028 0.97125 -0.323444 0.904613 -0.277596 255 255 255 255 
-0.580864 0.00195502 -0.0208149 0.951558 0.0467904 0.303888 255 255 255 255 
-0.701001 -0.791007 0.015755 -0.983055 0.179553 0.0369205 255 255 255 255 
-0.567601 -0.430138 0.138728 0.669178 0.656653 -0.347861 255 255 255 255 
-0.802277 0.136811 -0.101315 -0.670154 0.0821084 -0.737666 255 255 255 255 
-0.557711 -0.701997 -0.186645 0.881655 0.457773 0.114578 255 255 255 255 
-0.766857 -0.00471497 0.565301 0.473523 -0.653251 -0.590795 255 255 255 255 
-0.643271 -0.586997 0.0239584 -0.440464 0.650302 -0.61895 255 255 255 255 
-0.764174 -0.0771648 0.639821 0.289835 -0.576767 -0.763764 255 255 255 255 
-0.517844 -0.405221 0.707134 0.695453 0.323246 -0.641761 255 255 255 255 
-0.508184 -0.728677 -0.618891 -0.221793 -0.729953 -0.646511 255 255 255 255 
-0.682984 -0.469238 0.147238 -0.962763 -0.139065 -0.231836 255 255 255 255 
-0.742247 0.337371 0.305785 0.0971456 0.995245 -0.00711244 255 255 255 255 
-0.516157 -0.0637482 0.862077 0.693325 0.307729 -0.651616 255 255 255 255 
-0.782574 0.251121 0.0343083 -0.426925 0.754846 -0.497938 255 255 255 255 
-0.73941 0.0634416 0.498601 0.445529 -0.777211 -0.44435 255 255 255 255 
-0.656994 -0.0985548 0.73826 0.473026 0.22252 -0.852486 255 255 255 255 
-0.558401 -0.270671 -0.147391 0.883374 0.434308 0.176144 255 255 255 255 
-0.508184 -0.762564 -0.347108 0.0539701 0.989762 0.132127 255 255 255 255 
-0.673554 -0.820754 0.652317 0 0 0 255 255 255 255 
-0.547437 -0.527581 0.624027 0.528357 0.426852 -0.733919 255 255 255 255 
-0.89397 0.249205 0.422778 -0.868322 0.483348 0.111316 255 255 255 255 
-0.512171 -0.333001 0.757274 0.807655 0.214367 -0.549309 255 255 255 255 
-0.461878 -0.371104 0.88132 0.66559 0.0373391 -0.745383 255 255 255 255 
-0.635144 -0.395638 0.105532 0.081691 -0.175785 -0.981033 255 255 255 255 
-0.498601 -0.517691 0.86315 0.602414 -0.191433 -0.774888 255 255 255 255 
-0.481428 -0.688274 0.00287506 0.938931 0.341484 -0.0423963 255 255 255 255 
-0.637367 -0.454901 0.100778 -0.193476 0.31017 -0.930785 255 255 255 255 
-0.556561 -0.292138 0.734427 0.58831 0.311839 -0.746089 255 255 255 255 
-0.669184 -0.782344 -0.102618 -0.793136 0.0156745 -0.608843 255 255 255 255 
-0.641354 0.209261 0.223368 0 0 0 255 255 255 255 
-0.650094 0.0705716 -0.167631 0.298184 0.400583 -0.866383 255 255 255 255 
-0.549047 -0.707747 -0.619427 -0.819775 -0.354659 -0.449651 255 255 255 255 
-0.661594 0.175298 0.84314 0.378556 0.478859 -0.792079 255 255 255 255 
-0.565531 -0.541764 -0.238011 0.435955 -0.136116 -0.889616 255 255 255 255 
-0.529804 -0.745007 -0.204201 0.281871 0.922921 -0.262232 255 255 255 255 
-0.681911 -0.404684 0.129758 -0.801602 -0.200251 -0.563324 255 255 255 255 
-0.687737 0.320888 0.250968 0.481863 0.875023 -0.0462954 255 255 255 255 
-0.669951 0.126768 0.565684 0.640616 -0.524885 -0.560452 255 255 255 255 
-0.625944 0.213631 0.146548 0.988726 -0.0613765 0.13658 255 255 255 255 
-0.547284 -0.0908115 -0.177368 0.993991 -0.0717266 0.0826875 255 255 255 255 
-0.881934 0.216775 0.223445 -0.890171 0.409599 -0.199562 255 255 255 255 
-0.461571 -0.767164 -0.00755159 0.998445 -0.0503495 0.0239182 255 255 255 255 
-0.539771 -0.748304 -0.207651 0.0833907 0.935662 -0.342903 255 255 255 255 
-0.504274 -0.0954115 0.85372 0.76402 0.218685 -0.607001 255 255 255 255 
-0.620577 -0.00448496 0.791007 0.576552 0.264577 -0.773037 255 255 255 255 
-0.74585 0.198068 -0.0859815 -0.299542 0.933099 -0.199 255 255 255 255 
-0.659141 0.229808 0.410128 0.964077 -0.265592 0.00395169 255 255 255 255 
-0.697321 0.213095 0.85625 0.234583 0.558303 -0.795782 255 255 255 255 
-0.612834 -0.290681 -0.656994 0 0 0 255 255 255 255 
-0.696861 -0.365278 0.138498 -0.910453 -0.287106 -0.297734 255 255 255 255 
-0.689577 -0.332541 -0.107601 -0.59463 0.113441 0.795956 255 255 255 255 
-0.654847 0.108138 0.808487 0.446979 0.368591 -0.815077 255 255 255 255 
-0.629624 0.227585 0.89742 0.453937 0.53979 -0.70892 255 255 255 255 
-0.460344 -0.423238 -0.906467 0.302191 0.952473 -0.0384192 255 255 255 255 
-0.7631 -0.00563497 0.053475 -0.415114 -0.491962 0.76528 255 255 255 255 
-0.617051 -0.80404 -0.219151 -0.949294 0.0970202 -0.299044 255 255 255 255 
-0.432974 -0.448768 -0.90087 0.939095 0.322543 0.118604 255 255 255 255 
-0.622724 -0.357074 0.100625 0.453645 -0.218308 -0.86403 255 255 255 255 
-0.93284 0.017365 0.653697 0 0 0 255 255 255 255 
-0.505577 -0.378924 -0.778434 0.108697 0.811437 -0.574243 255 255 255 255 
-0.744164 -0.928777 0.631081 -0.269326 0.288588 -0.918793 255 255 255 255 
-0.95239 0.0618316 0.92847 -0.855444 0.200552 -0.477487 255 255 255 255 
-0.663741 0.230115 0.495074 0.997282 0.0113026 0.0728116 255 255 255 255 
-0.511557 -0.86246 -0.447541 -0.0646652 -0.908328 -0.413229 255 255 255 255 
-0.534941 -0.0220416 0.864914 0.587891 0.319897 -0.743001 255 255 255 255 
-0.459424 -0.791697 -0.322114 0.862601 0.466861 0.194833 255 255 255 255 
-0.704067 0.133438 0.80542 0.249895 0.483017 -0.839194 255 255 255 255 
-0.506421 -0.657071 0.582704 0.96237 0.182221 -0.201594 255 255 255 255 
-0.502664 -0.425461 0.845594 0.696475 0.00909486 -0.717523 255 255 255 255 
-0.70836 0.228351 -0.0310115 0.0398027 0.870154 -0.49117 255 255 255 255 
-0.574117 -0.462108 0.634607 0.628104 0.394728 -0.670578 255 255 255 255 
-0.559551 -0.0686549 -0.392648 0.750926 0.654316 -0.0893344 255 255 255 255 
-0.616591 0.00931502 -0.189865 0.417582 0.610419 -0.673064 255 255 255 255 
-0.653927 0.117798 0.816 0.40228 0.391673 -0.827504 255 255 255 255 
-0.557021 -0.329091 -0.72929 -0.230757 0.497125 -0.836432 255 255 255 255 
-0.661901 -0.653774 -0.0524015 -0.664968 0.592436 -0.454794 255 255 255 255 
-0.467628 -0.417258 -0.861157 0.322555 0.935562 -0.143812 255 255 255 255 
-0.696094 -0.123088 0.707747 0.558966 -0.0394091 -0.828254 255 255 255 255 
-0.548817 -0.599647 -0.203435 0.41825 -0.555867 -0.718386 255 255 255 255 
-0.558401 -0.660137 -0.595737 -0.900798 0.325107 0.28787 255 255 255 255 
-0.640434 -0.812704 -0.149691 -0.89132 -0.396582 -0.219706 255 255 255 255 
-0.652777 -0.76172 0.948404 -0.0433264 -0.745626 -0.664955 255 255 255 255 
-0.502204 -0.341818 -0.121325 -0.0133076 0.129772 -0.991455 255 255 255 255 
-0.576647 -0.845977 -0.371794 -0.835546 -0.512291 -0.198547 255 255 255 255 
-0.590754 0.156055 -0.0719515 0.906283 0.258179 -0.334655 255 255 255 255 
-0.543757 -0.372944 -0.185265 0.960509 -0.160145 -0.227542 255 255 255 255 
-0.815157 0.291065 0.95515 -0.371319 0.834742 -0.406605 255 255 255 255 
-0.670794 -0.617587 0.125925 -0.898327 -0.0371176 0.437757 255 255 255 255 
-0.447158 -0.665427 -0.621037 0.961105 -0.14083 -0.23758 255 255 255 255 
-0.581631 -0.104535 0.000115068 0 0 0 255 255 255 255 
-0.507417 -0.757887 -0.220455 0.500333 0.850245 -0.163552 255 255 255 255 
-0.632154 -0.270825 0.684977 0.355378 0.359428 -0.862855 255 255 255 255 
-0.507647 -0.448614 0.721931 0.996434 0.0473316 -0.0698529 255 255 255 255 
-0.665504 -0.371334 -0.245678 -0.24162 -0.253559 -0.936658 255 255 255 255 
-0.91076 0.170085 0.9195 -0.697587 0.361326 -0.618722 255 255 255 255 
-0.612527 0.153525 0.857784 0.540612 0.397609 -0.741381 255 255 255 255 
-0.620884 -0.503661 0.0768583 -0.155399 0.481682 -0.862458 255 255 255 255 
-0.547207 -0.101851 -0.187641 0.989104 -0.121765 0.0827492 255 255 255 255 
-0.749224 -0.426994 0.650477 0 0 0 255 255 255 255 
-0.687737 -0.760264 -0.0740981 -0.896549 0.220324 -0.384262 255 255 255 255 
-0.565991 -0.0501782 -0.0773181 0.981897 0.0413654 0.184843 255 255 255 255 
-0.477748 -0.362518 0.863304 0.672299 0.0129063 -0.740168 255 255 255 255 
-0.697934 -0.653314 0.042205 -0.861897 0.504323 -0.0528424 255 255 255 255 
-0.622111 -0.408748 0.108445 0.256996 0.0735401 -0.96361 255 255 255 255 
-0.562004 -0.489017 -0.235021 0.553461 0.430833 -0.712786 255 255 255 255 
-0.598957 -0.178211 0.0333883 0.964171 -0.0772487 0.253784 255 255 255 255 
-0.802967 0.130678 0.81554 -0.433929 0.373848 -0.819722 255 255 255 255 
-0.474681 -0.817534 -0.0950281 0.892022 -0.438256 -0.110582 255 255 255 255 
-0.651321 0.103462 0.812704 0.418125 0.349338 -0.838531 255 255 255 255 
-0.551347 -0.739564 -0.194695 0.00838949 0.889482 -0.456892 255 255 255 255 
-0.718787 0.0964082 0.771687 0.534174 0.386681 -0.751755 255 255 255 255 
-0.575651 -0.121478 -0.564994 0.303312 0.756508 -0.579394 255 255 255 255 
-0.520681 -0.658911 -0.115575 0.829605 0.03021 -0.557533 255 255 255 255 
-0.528577 -0.408441 -0.83003 -0.331664 0.878934 -0.342746 255 255 255 255 
-0.692491 -0.0572315 0.685744 0.888516 -0.259985 -0.378083 255 255 255 255 
-0.586691 -0.333844 0.680301 0.684441 0.27504 -0.6752 255 255 255 255 
-0.558324 -0.130985 -0.283168 0.746804 -0.66499 -0.00848254 255 255 255 255 
-0.621881 -0.377928 0.643041 -0.0530187 0.133429 -0.989639 255 255 255 255 
-0.701537 0.00371835 -0.195001 -0.301448 0.400941 -0.865087 255 255 255 255 
-0.543681 -0.336298 -0.122245 0.971541 0.0923455 0.218131 255 255 255 255 
-0.738184 0.271975 0.0435083 -0.112535 0.887964 -0.445933 255 255 255 255 
-0.855714 0.273968 0.506344 -0.508259 0.814697 0.279181 255 255 255 255 
-0.588914 -0.565684 0.560317 0.532551 0.531469 -0.658734 255 255 255 255 
-0.678844 -0.390118 0.114118 -0.605418 -0.30485 -0.735211 255 255 255 255 
-0.750757 0.141258 0.804194 -0.0617169 0.567279 -0.82121 255 255 255 255 
-0.633304 -0.395561 0.632231 0.206891 0.382589 -0.900456 255 255 255 255 
-0.531797 -0.749837 -0.209031 0.181825 0.937408 -0.296995 255 255 255 255 
-0.584544 -0.382374 -0.233641 0.529589 -0.29161 -0.796555 255 255 255 255 
-0.72078 -0.103308 0.679841 0.501465 -0.329985 -0.799777 255 255 255 255 
-0.515314 -0.218155 -0.610534 0.944536 0.319383 -0.0764656 255 255 255 255 
-0.722314 -0.323111 -0.161498 -0.985972 0.101751 0.132314 255 255 255 255 
-0.540614 -0.484954 -0.214628 0.701998 0.353371 -0.618327 255 255 255 255 
-0.813087 0.302335 0.477901 -0.332727 0.906399 0.260256 255 255 255 255 
-0.701691 0.222141 -0.0423582 0.0316179 0.880793 -0.472445 255 255 255 255 
-0.674474 -0.106221 -0.436424 -0.971243 0.159371 -0.176881 255 255 255 255 
-0.473378 -0.81094 -0.141795 0.975086 -0.220166 0.0271101 255 255 255 255 
-0.564074 -0.255415 0.744624 0.633554 0.296319 -0.714705 255 255 255 255 
-0.681451 -0.485414 0.165331 -0.97633 -0.190919 0.10164 255 255 255 255 
-0.467321 -0.404301 0.87488 0.703221 -0.0307593 -0.710305 255 255 255 255 
-0.476138 -0.760877 0.0981716 0.985553 0.0889555 0.144126 255 255 255 255 
-0.747614 -0.0122283 0.0593783 -0.346969 -0.465489 0.814207 255 255 255 255 
-0.606547 -0.0398282 -0.333844 0.165156 0.985873 -0.0279045 255 255 255 255 
-0.798214 -0.233795 0.709894 -0.274048 -0.30674 -0.911487 255 255 255 255 
-0.613217 -0.0287116 -0.252655 0.159763 0.94062 -0.299517 255 255 255 255 
-0.630851 0.0310116 -0.181585 0.377808 0.513683 -0.770318 255 255 255 255 
-0.727067 0.145551 0.745237 0 0 0 255 255 255 255 
-0.661441 -0.445164 -0.219688 -0.380957 0.329572 -0.86386 255 255 255 255 
-0.71342 0.0878216 0.768314 -0.471062 -0.128453 -0.872697 255 255 255 255 
-0.849044 0.288918 0.463028 -0.52751 0.826464 0.196701 255 255 255 255 
-0.516541 -0.103538 0.839307 0.647918 0.29059 -0.704102 255 255 255 255 
-0.463564 -0.437191 0.723081 -0.401622 0.365948 -0.839513 255 255 255 255 
-0.658451 0.0746349 -0.167785 0.166462 0.372947 -0.912798 255 255 255 255 
-0.584237 -0.515774 -0.248591 0.359965 0.0974616 -0.927861 255 255 255 255 
-0.546901 -0.174915 0.782344 0.588323 0.3249 -0.740484 255 255 255 255 
-0.84728 0.271055 0.192241 -0.768887 0.585704 -0.256445 255 255 255 255 
-0.630314 -0.505501 -0.251351 -0.172118 0.145845 -0.97422 255 255 255 255 
-0.450914 -0.298194 0.761797 0 0 0 255 255 255 255 
-0.91467 0.189788 0.939817 -0.744569 0.423694 -0.515849 255 255 255 255 
-0.657454 -0.0224249 0.759497 0.640744 0.302685 -0.70557 255 255 255 255 
-0.696937 -0.518151 -0.135355 -0.957299 0.0901775 0.274675 255 255 255 255 
-0.692261 -0.207191 0.691954 0.104732 0.300122 -0.948134 255 255 255 255 
-0.669491 0.0501016 0.781884 0.429526 0.371621 -0.823046 255 255 255 255 
-0.695787 -0.000728312 0.624717 0.723527 -0.49315 -0.483024 255 255 255 255 
-0.506344 -0.305094 -0.69456 0.739397 0.472031 -0.480082 255 255 255 255 
-0.577644 -0.868977 -0.214781 0 0 0 255 255 255 255 
-0.611531 0.0925749 -0.129605 0.723019 0.323912 -0.610184 255 255 255 255 
-0.665734 0.191858 0.85165 0.155207 0.320853 -0.934326 255 255 255 255 
-0.689654 -0.641737 0.0275617 -0.850806 0.495113 -0.176047 255 255 255 255 
-0.519147 -0.872504 -0.140568 0.143163 -0.989641 -0.0107339 255 255 255 255 
-0.598804 -0.955917 0.332081 0 0 0 255 255 255 255 
-0.461418 -0.810097 -0.272971 0.95418 0.228092 0.193686 255 255 255 255 
-0.526737 -0.260015 0.0335417 0 0 0 255 255 255 255 
-0.598727 -0.489017 0.0860583 0.25998 0.46767 -0.844805 255 255 255 255 
-0.560471 -0.112355 -0.544141 0.459546 0.756281 -0.465677 255 255 255 255 
-0.521217 -0.760877 -0.357304 -0.0702306 0.991095 0.113126 255 255 255 255 
-0.490704 -0.78587 0.202898 0.93087 0.313168 0.188168 255 255 255 255 
-0.513934 -0.583854 -0.155671 0.905463 -0.305678 -0.294445 255 255 255 255 
-0.851804 0.161421 0.0353817 -0.795006 0.491296 -0.3558 255 255 255 255 
-0.628474 0.227431 0.152298 0.979415 0.185094 0.0805316 255 255 255 255 
-0.674014 0.189251 0.84728 0.30427 0.544645 -0.781525 255 255 255 255 
-0.71319 -0.0359182 0.056235 -0.137885 -0.148554 0.979244 255 255 255 255 
-0.560931 -0.712654 -0.152605 -0.0864327 0.627196 -0.774051 255 255 255 255 
-0.585157 -0.80151 -0.364971 -0.962269 0.21761 -0.163353 255 255 255 255 
-0.83164 0.198451 0.038985 -0.822867 0.42679 -0.375154 255 255 255 255 
-0.500211 -0.78081 0.244528 0.831575 0.517876 0.200719 255 255 255 255 
-0.557174 -0.126078 -0.132441 0 0 0 255 255 255 255 
-0.614214 -0.139341 -0.583854 -0.326478 0.691349 -0.644553 255 255 255 255 
-0.593667 -0.152911 -0.234868 0.318889 -0.934737 -0.156771 255 255 255 255 
-0.681374 -0.505194 -0.242688 0.0119212 0.511797 -0.859024 255 255 255 255 
-0.439491 -0.469161 -0.835934 0.986352 -0.0167692 0.163794 255 255 255 255 
-0.602407 -0.337831 0.115958 0.83693 -0.0616985 -0.543821 255 255 255 255 
-0.630314 -0.583701 0.169548 -0.284166 -0.158336 0.945611 255 255 255 255 
-0.85763 0.243225 0.9241 -0.469184 0.61209 -0.636563 255 255 255 255 
-0.470388 -0.162341 0.899797 0.627937 0.189601 -0.754816 255 255 255 255 
-0.666884 -0.344041 -0.0929581 -0.417911 -0.00511429 0.908473 255 255 255 255 
-0.722544 0.247748 0.879787 0.0588336 0.697949 -0.713727 255 255 255 255 
-0.77506 -0.0860582 -0.135585 -0.893254 -0.221697 -0.391084 255 255 255 255 
-0.529267 -0.641354 -0.122091 0.950907 -0.103075 -0.291806 255 255 255 255 
-0.902864 0.211638 0.540077 -0.871597 0.446143 0.203165 255 255 255 255 
-0.519991 -0.200751 -0.566451 0.988769 0.101461 0.109738 255 255 255 255 
-0.659831 -0.266378 -0.220915 -0.246389 0.627934 -0.738236 255 255 255 255 
-0.663817 -0.548127 -0.0863648 -0.633954 -0.043428 0.77215 255 255 255 255 
-0.436271 -0.464101 -0.95975 0.850834 -0.428644 -0.303885 255 255 255 255 
-0.575421 -0.151148 -0.0224249 0.934162 -0.222821 0.278735 255 255 255 255 
-0.683981 -0.113965 -0.337754 -0.904121 -0.405302 -0.135263 255 255 255 255 
-0.683137 0.195078 0.849197 0.282026 0.536939 -0.795084 255 255 255 255 
-0.466171 -0.769464 -0.0635182 0.978536 0.0608328 -0.19689 255 255 255 255 
-0.592517 0.0225017 0.0104651 0.9444 0.0470105 0.325422 255 255 255 255 
-0.466248 -0.767547 -0.380304 0.59838 0.768521 0.226533 255 255 255 255 
-0.526431 -0.631311 -0.0236516 0.521397 0.84137 -0.142271 255 255 255 255 
-0.549737 -0.111511 -0.248515 0.968229 -0.242497 -0.0610542 255 255 255 255 
-0.695021 -0.287691 -0.222295 -0.527811 0.523335 -0.668982 255 255 255 255 
-0.72032 -0.914747 0.623414 -0.360996 0.411569 -0.836835 255 255 255 255 
-0.637214 -0.203895 0.708667 0.370959 0.33077 -0.867745 255 255 255 255 
-0.568291 -0.133975 -0.0783915 0.992622 -0.0623257 0.104008 255 255 255 255 
-0.399471 -0.683521 -0.208495 0 0 0 255 255 255 255 
-0.544831 -0.710277 0.928087 0.356009 -0.537617 -0.764346 255 255 255 255 
-0.580251 -0.746234 -0.194235 -0.335378 0.832857 -0.440308 255 255 255 255 
-0.697704 -0.360524 0.647564 -0.168229 0.339854 -0.92531 255 255 255 255 
-0.713344 0.283628 0.068195 0.148687 0.922004 -0.357492 255 255 255 255 
-0.548587 0.0447349 0.869284 0.661159 0.252594 -0.706445 255 255 255 255 
-0.549354 -0.0992448 -0.313068 0.996849 -0.0791542 0.00522643 255 255 255 255 
-0.71756 -0.0064783 -0.193161 -0.433029 0.43756 -0.788053 255 255 255 255 
-0.661977 -0.563384 -0.0870548 -0.638114 -0.168009 0.751388 255 255 255 255 
-0.549124 -0.753594 -0.232185 -0.0803215 0.967188 -0.241032 255 255 255 255 
-0.527121 -0.188178 -0.533714 0.96489 -0.0355228 0.26024 255 255 255 255 
-0.517384 -0.637904 0.90064 0.428742 -0.401603 -0.809256 255 255 255 255 
-0.79438 0.127075 0.80841 -0.384909 0.550337 -0.740928 255 255 255 255 
-0.793077 -0.354008 0.732587 -0.770105 0.0540475 -0.635623 255 255 255 255 
-0.550887 -0.718174 -0.157358 0.0606944 0.728492 -0.68236 255 255 255 255 
-0.654311 -0.74516 -0.115038 -0.70459 0.294374 -0.645675 255 255 255 255 
-0.593054 0.118642 0.860544 0.635392 0.320771 -0.702413 255 255 255 255 
-0.700004 -0.0986315 -0.255338 -0.92316 -0.300706 -0.239482 255 255 255 255 
-0.530494 -0.192548 -0.614904 0.731172 0.561124 -0.387978 255 255 255 255 
-0.608617 -0.216161 0.0625216 0.995933 0.0615788 0.0657663 255 255 255 255 
-0.571817 -0.138575 -0.306244 0.606524 -0.792886 0.0588292 255 255 255 255 
-0.527887 -0.333461 -0.735347 0.164335 0.616064 -0.770363 255 255 255 255 
-0.591291 -0.177675 -0.627631 -0.13491 0.648598 -0.749079 255 255 255 255 
-0.701384 0.025415 -0.186568 -0.245715 0.343703 -0.906362 255 255 255 255 
-0.796757 0.226128 0.875187 -0.303927 0.630051 -0.714607 255 255 255 255 
-0.550351 -0.0966381 -0.478974 0.801921 0.568895 -0.182429 255 255 255 255 
-0.758194 0.312225 0.959903 -0.000266899 0.94336 -0.331769 255 255 255 255 
-0.662131 -0.133208 -0.508874 -0.959241 0.106577 -0.26172 255 255 255 255 
-0.599571 -0.80634 -0.290988 -0.955684 0.22525 -0.189552 255 255 255 255 
-0.480431 -0.822287 0.136965 0.981126 -0.193223 0.00753871 255 255 255 255 
-0.445854 -0.70031 -0.543757 0.895113 0.36812 0.251515 255 255 255 255 
-0.451374 -0.448384 0.89535 0.636528 -0.0823482 -0.766845 255 255 255 255 
-0.622341 -0.551884 0.551117 0.234833 0.557668 -0.796153 255 255 255 255 
-0.633381 -0.228275 -0.198681 0.385195 0.549745 -0.741219 255 255 255 255 
-0.785104 0.300725 0.503738 0 0 0 255 255 255 255 
-0.623107 -0.483191 -0.247441 -0.102359 0.390908 -0.91472 255 255 255 255 
-0.700387 -0.778817 -0.0320849 -0.981308 0.187487 -0.0433857 255 255 255 255 
-0.8528 0.267758 0.201365 -0.803837 0.548046 -0.231281 255 255 255 255 
-0.561467 -0.544217 0.0657416 0.752606 0.271183 -0.600036 255 255 255 255 
-0.553877 0.157205 0.919194 0.714166 0.390957 -0.58062 255 255 255 255 
-0.892974 0.248591 0.443248 -0.849735 0.501002 0.164159 255 255 255 255 
-0.496684 -0.151531 0.859624 0.962463 0.192432 -0.191404 255 255 255 255 
-0.516694 -0.610917 0.0517883 0.840348 0.506811 -0.192247 255 255 255 255 
-0.931537 0.130218 0.514164 -0.988234 -0.0397099 -0.147705 255 255 255 255 
-0.553187 -0.106911 -0.519454 0.688672 0.660468 -0.299187 255 255 255 255 
-0.496531 -0.659601 -0.0236516 0.816923 0.573579 -0.0603608 255 255 255 255 
-0.655537 -0.589144 0.153141 -0.633461 -0.317884 0.705462 255 255 255 255 
-0.614597 -0.465328 0.0944916 0.104812 0.455472 -0.884059 255 255 255 255 
-0.569441 -0.246675 -0.141181 0.946886 0.311023 0.0816733 255 255 255 255 
-0.786867 0.136428 -0.114885 -0.826154 0.30789 -0.471883 255 255 255 255 
-0.72561 0.203205 -0.0846781 -0.188818 0.963378 -0.190397 255 255 255 255 
-0.635834 -0.213095 -0.608771 -0.949633 0.0296626 -0.311957 255 255 255 255 
-0.567294 0.174301 0.913904 0.665224 0.292606 -0.686919 255 255 255 255 
-0.646797 -0.211178 0.697091 0.245382 0.346391 -0.905428 255 255 255 255 
-0.494001 -0.307471 -0.659984 0.980277 0.19157 0.0485579 255 255 255 255 
-0.780657 0.0115383 0.550504 0.203637 -0.768302 -0.606831 255 255 255 255 
-0.879557 -0.515851 0.908384 -0.844881 -0.29147 -0.448576 255 255 255 255 
-0.640357 -0.596351 0.160578 -0.427083 -0.274319 0.861597 255 255 255 255 
-0.632001 0.234408 0.0972516 0.871508 0.48113 -0.0948011 255 255 255 255 
-0.449228 -0.632997 -0.651244 0.994994 0.0972342 -0.0230639 255 255 255 255 
-0.465558 -0.793307 -0.0180549 0.946196 -0.312993 -0.0821526 255 255 255 255 
-0.598881 -0.819987 -0.311918 -0.965866 0.183561 -0.182782 255 255 255 255 
-0.674934 -0.420708 0.127688 -0.779179 -0.171476 -0.60289 255 255 255 255 
-0.456051 -0.423238 -0.870817 0.467753 0.883694 -0.0171114 255 255 255 255 
-0.914057 0.185035 0.523288 -0.934435 0.334004 0.123584 255 255 255 255 
-0.626634 -0.292904 -0.240618 0.0897464 0.455399 -0.885753 255 255 255 255 
-0.715797 0.197378 -0.112201 -0.181462 0.855311 -0.485299 255 255 255 255 
-0.416338 -0.517921 0.941963 0.851108 -0.167963 -0.497397 255 255 255 255 
-0.641047 -0.162111 0.724614 0.353452 0.362764 -0.862249 255 255 255 255 
-0.593591 -0.812167 -0.329781 -0.98043 0.0677736 -0.184832 255 255 255 255 
-0.464791 -0.771227 -0.0435082 0.983565 -0.0801304 -0.161801 255 255 255 255 
-0.609461 -0.364434 -0.247135 0.159509 -0.194898 -0.967766 255 255 255 255 
-0.536167 -0.171311 -0.595814 0.741488 0.54256 -0.394747 255 255 255 255 
-0.565684 -0.138651 -0.0973281 0 0 0 255 255 255 255 
-0.503967 -0.347951 -0.735424 0.407601 0.657709 -0.633467 255 255 255 255 
-0.488788 -0.341971 -0.6826 0.9637 0.266953 0.00438176 255 255 255 255 
-0.459884 -0.72883 -0.599724 0.497932 -0.517225 -0.696091 255 255 255 255 
-0.474988 -0.256028 0.87511 0.71796 -0.0535936 -0.694018 255 255 255 255 
-0.82405 0.290605 0.501591 -0.397628 0.864617 0.307131 255 255 255 255 
-0.516157 -0.0138383 0.884157 0.695134 0.269763 -0.666346 255 255 255 255 
-0.591521 -0.80956 -0.338521 -0.97248 0.122875 -0.19795 255 255 255 255 
-0.634684 -0.676467 -0.113121 -0.754909 0.0540557 -0.653598 255 255 255 255 
-0.689501 -0.692261 0.130908 -0.663285 0.350876 0.661014 255 255 255 255 
-0.78035 -0.128915 0.668877 0.155452 -0.44463 -0.882122 255 255 255 255 
-0.79944 -0.0495649 -0.0895081 -0.934085 -0.254021 -0.250917 255 255 255 255 
-0.540691 0.0244183 0.870434 0.653602 0.274725 -0.705216 255 255 255 255 
-0.591904 -0.130448 -0.579331 0.0243965 0.734737 -0.677913 255 255 255 255 
-0.573734 -0.755587 -0.232645 -0.376142 0.880154 -0.289562 255 255 255 255 
-0.508184 -0.506804 0.670871 0.869337 0.238527 -0.432849 255 255 255 255 
-0.716487 -0.495534 0.598191 -0.318558 0.393776 -0.862242 255 255 255 255 
-0.581784 -0.85326 -0.323954 -0.773814 -0.614127 -0.155113 255 255 255 255 
-0.70882 0.241768 0.875647 0.123172 0.677028 -0.725576 255 255 255 255 
-0.545367 -0.673784 -0.656687 -0.553766 -0.463173 -0.691964 255 255 255 255 
-0.558094 -0.182275 0.776134 0.611398 0.311545 -0.727415 255 255 255 255 
-0.583547 -0.0970981 0.788784 0.712693 0.242058 -0.658389 255 255 255 255 
-0.686127 -0.69272 0.421858 -0.38738 0.728202 -0.565383 255 255 255 255 
-0.658911 0.215165 0.86775 0.322434 0.561229 -0.762272 255 255 255 255 
-0.483268 -0.767087 -0.169395 0.819321 0.557405 -0.134209 255 255 255 255 
-0.633457 -0.501514 -0.247211 -0.22979 0.225792 -0.946686 255 255 255 255 
-0.849734 0.189098 0.0728716 -0.797099 0.420003 -0.433855 255 255 255 255 
-0.647717 -0.0381416 -0.285391 0 0 0 255 255 255 255 
-0.609307 -0.0766282 -0.492237 -0.0781387 0.92328 -0.376096 255 255 255 255 
-0.536321 -0.757274 -0.251658 0.000320014 0.992742 -0.120259 255 255 255 255 
-0.662897 0.218921 0.485261 0.989267 -0.143166 0.0292289 255 255 255 255 
-0.498141 -0.877257 0.239851 0.949981 -0.310274 0.035573 255 255 255 255 
-0.766397 0.0185917 0.547591 0.308049 -0.750445 -0.584755 255 255 255 255 
-0.546594 -0.920573 0.342968 0.696829 -0.714809 0.0589723 255 255 255 255 
-0.541841 -0.311458 -0.72009 0.0986822 0.534018 -0.839694 255 255 255 255 
-0.545827 -0.0946448 -0.192548 0.993276 -0.0807896 0.0829208 255 255 255 255 
-0.921187 0.159428 0.537011 -0.926731 0.346473 0.145348 255 255 255 255 
-0.663434 -0.468164 0.596964 -0.0291788 0.402831 -0.914809 255 255 255 255 
-0.525357 -0.500594 -0.200291 0.839855 0.253589 -0.479933 255 255 255 255 
-0.866524 0.154521 0.071415 -0.9606 0.208976 -0.183239 255 255 255 255 
-0.574501 -0.486871 -0.238165 0.439145 0.368298 -0.819456 255 255 255 255 
-0.683751 -0.173151 0.703377 0.0960257 0.164043 -0.981768 255 255 255 255 
-0.809407 0.251045 0.597884 0 0 0 255 255 255 255 
-0.684057 0.0372216 -0.185571 -0.0972506 0.402346 -0.910308 255 255 255 255 
-0.552344 -0.0702649 -0.284701 0.898336 0.430032 -0.0898029 255 255 255 255 
-0.931613 0.122935 0.923487 -0.790805 0.264146 -0.552136 255 255 255 255 
-0.847127 0.280178 0.502051 0.374301 0.719238 -0.585316 255 255 255 255 
-0.558401 -0.0747115 -0.119715 0 0 0 255 255 255 255 
-0.554031 -0.299804 0.732894 0.614383 0.343563 -0.71028 255 255 255 255 
-0.669261 0.217848 -0.0385249 0.276277 0.871629 -0.404888 255 255 255 255 
-0.638364 -0.655844 -0.116648 -0.818459 -0.454216 -0.35187 255 255 255 255 
-0.627784 -0.566604 0.034615 -0.364477 0.623662 -0.691522 255 255 255 255 
-0.519224 -0.295434 -0.700234 0.551578 0.523056 -0.64975 255 255 255 255 
-0.580787 -0.501284 0.607161 0.618926 0.426156 -0.659788 255 255 255 255 
-0.827577 0.254495 0.106682 -0.731758 0.625907 -0.26976 255 255 255 255 
-0.543527 -0.686894 -0.645417 -0.559906 -0.599132 -0.572316 255 255 255 255 
-0.505577 -0.651321 0.592747 0.887165 0.322975 -0.329582 255 255 255 255 
-0.501668 -0.652241 -0.0176716 0.77663 0.62834 -0.0451062 255 255 255 255 
-0.864147 0.164411 0.0758616 -0.821232 0.317688 -0.473976 255 255 255 255 
-0.540307 0.0545483 0.88638 0.649104 0.226072 -0.72633 255 255 255 255 
-0.500594 -0.655921 -0.0405182 0.801295 0.59375 -0.0734015 255 255 255 255 
-0.573427 -0.336988 -0.234561 0.591104 0.0741005 -0.803184 255 255 255 255 
-0.88546 0.107372 0.864684 -0.661606 0.282549 -0.694582 255 255 255 255 
-0.81646 0.108828 0.785027 0.302997 0.197306 -0.932343 255 255 255 255 
-0.552191 -0.643117 -0.600644 -0.806244 0.423212 0.413356 255 255 255 255 
-0.539771 -0.566451 0.85878 0.467998 -0.334841 -0.817838 255 255 255 255 
-0.470158 -0.397401 -0.74861 0.932228 0.359033 0.0452329 255 255 255 255 
-0.624717 -0.346111 0.654771 0.300604 0.34284 -0.889999 255 255 255 255 
-0.71434 -0.382528 -0.179975 -0.912744 -0.381399 -0.146399 255 255 255 255 
-0.677311 -0.494077 -0.217465 -0.785038 0.219167 -0.57938 255 255 255 255 
-0.622417 -0.146778 0.734044 0.457122 0.276991 -0.845172 255 255 255 255 
-0.456971 -0.260475 0.894814 0.627198 0.138325 -0.766478 255 255 255 255 
-0.538851 -0.475908 0.795377 0 0 0 255 255 255 255 
-0.753287 0.162035 0.8183 -0.0952102 0.532548 -0.841028 255 255 255 255 
-0.508491 -0.202668 0.81669 0.897889 0.114584 -0.425049 255 255 255 255 
-0.555487 -0.0605282 -0.129911 0 0 0 255 255 255 255 
-0.510331 0.00563501 0.8919 0.737052 0.249898 -0.627937 255 255 255 255 
-0.546517 -0.594434 0.027485 0.549012 0.668938 -0.501107 255 255 255 255 
-0.649021 -0.505807 0.0898149 -0.421169 0.345505 -0.838596 255 255 255 255 
-0.832637 0.312071 0.353624 -0.515817 0.856183 0.0297321 255 255 255 255 
-0.598267 -0.192395 -0.0364549 0 0 0 255 255 255 255 
-0.563997 -0.722544 -0.567217 -0.988236 -0.0657269 -0.138095 255 255 255 255 
-0.665811 -0.261318 -0.215471 -0.342893 0.625543 -0.7008 255 255 255 255 
-0.663817 0.0842182 -0.164258 0.208248 0.390128 -0.896902 255 255 255 255 
-0.849657 0.254035 0.564304 -0.411515 0.845585 0.340061 255 255 255 255 
-0.555871 -0.581324 0.033695 0.473288 0.682003 -0.557558 255 255 255 255 
-0.669874 -0.259631 0.675317 0.132687 0.324529 -0.936523 255 255 255 255 
-0.508107 -0.628397 -0.709894 -0.205083 -0.615482 -0.761002 255 255 255 255 
-0.699697 -0.342508 0.123778 -0.888933 -0.333684 -0.313774 255 255 255 255 
-0.754897 0.173458 0.82244 -0.203885 0.510782 -0.835184 255 255 255 255 
-0.471614 -0.417334 -0.86683 0.200326 0.979584 -0.0168553 255 255 255 255 
-0.460421 -0.416261 -0.821827 0.62919 0.776566 -0.0326464 255 255 255 255 
-0.559321 -0.0926515 0.810174 0.62589 0.310799 -0.715308 255 255 255 255 
-0.713727 -0.277188 0.0689616 -0.787266 -0.550518 -0.277746 255 255 255 255 
-0.711964 -0.314294 0.152758 -0.985961 -0.0680068 0.152496 255 255 255 255 
-0.754437 0.167631 -0.124238 -0.366303 0.35436 -0.860378 255 255 255 255 
-0.558247 -0.485798 0.634377 0.676882 0.332516 -0.656707 255 255 255 255 
-0.581784 -0.184958 -0.166175 0.742538 -0.343904 -0.574776 255 255 255 255 
-0.593131 -0.428451 0.117415 0.608098 0.252159 -0.75275 255 255 255 255 
-0.91996 0.180358 0.499521 -0.949203 0.310342 -0.0519767 255 255 255 255 
-0.717484 0.0699582 -0.166098 -0.224646 0.342025 -0.912444 255 255 255 255 
-0.614597 0.234638 0.914747 0.549789 0.563698 -0.616423 255 255 255 255 
-0.693871 -0.747 -0.0313182 -0.98886 0.0225963 -0.14712 255 255 255 255 
-0.685131 -0.125925 -0.280944 -0.815607 -0.56888 -0.105645 255 255 255 255 
-0.647717 -0.0431249 -0.329551 -0.308114 0.938443 -0.156178 255 255 255 255 
-0.607467 -0.542531 0.051405 -0.0703758 0.566214 -0.821249 255 255 255 255 
-0.604017 -0.633917 0.475754 0.214064 0.813784 -0.540308 255 255 255 255 
-0.600797 -0.626557 0.498524 0.347304 0.70354 -0.62001 255 255 255 255 
-0.589834 -0.774907 -0.254878 -0.686695 0.697573 -0.204553 255 255 255 255 
-0.669261 0.127688 0.600414 0.912898 -0.319141 -0.254491 255 255 255 255 
-0.540001 -0.741404 -0.458351 -0.389522 0.855851 0.340282 255 255 255 255 
-0.446544 -0.654464 -0.631387 0.967135 0.228793 0.110925 255 255 255 255 
-0.735884 -0.247901 0.685207 -0.216169 0.231071 -0.948619 255 255 255 255 
-0.70491 -0.252041 0.680377 -0.0208957 0.311485 -0.950021 255 255 255 255 
-0.553647 -0.222908 0.76632 0.558908 0.306742 -0.77041 255 255 255 255 
-0.444091 -0.587764 0.937747 0.665603 -0.313804 -0.677126 255 255 255 255 
-0.559781 -0.0219649 -0.130448 0.951129 0.308733 0.00617555 255 255 255 255 
-0.494614 -0.8298 0.318895 0.990793 -0.0635701 0.11953 255 255 255 255 
-0.554414 -0.690804 0.912294 0.360857 -0.439573 -0.822532 255 255 255 255 
-0.615517 0.180281 0.872197 0.507643 0.394809 -0.765784 255 255 255 255 
-0.896424 0.184881 0.606394 0 0 0 255 255 255 255 
-0.674244 0.223215 -0.0311649 0.277813 0.86671 -0.414286 255 255 255 255 
-0.841147 0.0881282 -0.0251082 0 0 0 255 255 255 255 
-0.488788 -0.357918 -0.735807 0.690802 0.598576 -0.405585 255 255 255 255 
-0.663664 -0.429218 0.229961 -0.343385 -0.259139 0.902737 255 255 255 255 
-0.659984 0.262851 0.0792349 0.620398 0.73973 -0.260587 255 255 255 255 
-0.467858 -0.552267 0.89627 0.610173 -0.255131 -0.750065 255 255 255 255 
-0.678001 -0.439798 -0.173381 -0.958798 -0.176782 -0.222384 255 255 255 255 
-0.599801 -0.75321 -0.186185 -0.456532 0.76062 -0.461559 255 255 255 255 
-0.549431 -0.0749415 -0.156591 0.991572 -0.020011 0.128004 255 255 255 255 
-0.691647 -0.328094 -0.238625 -0.47427 0.0583141 -0.878446 255 255 255 255 
-0.599417 -0.0799248 -0.501667 -0.0359892 0.884408 -0.465326 255 255 255 255 
-0.737034 0.314218 0.155211 0.169189 0.89289 -0.417281 255 255 255 255 
-0.8482 0.155288 0.0163684 -0.80669 0.521703 -0.277627 255 255 255 255 
-0.815157 0.116418 -0.0894315 -0.763424 -6.63264e-005 -0.645898 255 255 255 255 
-0.664354 -0.658604 -0.0504848 -0.724043 0.544176 -0.423831 255 255 255 255 
-0.678921 -0.0758615 0.709894 0.76887 -0.119833 -0.628076 255 255 255 255 
-0.642734 0.247748 0.268831 0.996059 -0.0666693 0.0584899 255 255 255 255 
-0.898877 -0.517997 0.940353 -0.804831 -0.276756 -0.525027 255 255 255 255 
-0.702227 -0.316134 -0.121248 -0.715392 0.139654 0.684625 255 255 255 255 
-0.586154 -0.640894 0.491318 0.483286 0.668533 -0.565242 255 255 255 255 
-0.499521 -0.857477 0.00318173 0 0 0 255 255 255 255 
-0.508874 -0.740407 -0.167095 0.676801 0.688314 -0.261083 255 255 255 255 
-0.707057 0.260858 0.894584 0.105108 0.701436 -0.70494 255 255 255 255 
-0.621037 -0.561927 0.040365 -0.278882 0.613825 -0.738542 255 255 255 255 
-0.71986 -0.74079 0.049335 -0.946553 -0.24376 -0.211233 255 255 255 255 
-0.493234 -0.852647 0.063365 0 0 0 255 255 255 255 
-0.559857 -0.263771 0.703914 0.20823 0.117166 -0.971037 255 255 255 255 
-0.826197 -0.517154 0.834707 -0.399822 -0.279226 -0.873027 255 255 255 255 
-0.847894 0.261395 0.93721 -0.456843 0.65835 -0.598223 255 255 255 255 
-0.938897 -0.388431 0.935217 -0.801531 -0.241916 -0.546832 255 255 255 255 
-0.579637 0.136888 -0.0372215 0.984723 0.161418 -0.065303 255 255 255 255 
-0.685207 -0.570284 -0.122628 -0.890685 -0.318523 0.324382 255 255 255 255 
-0.570744 -0.148465 0.781884 0.648368 0.303409 -0.698256 255 255 255 255 
-0.695404 -0.398244 0.165025 -0.935238 -0.239487 -0.260723 255 255 255 255 
-0.728447 0.153985 0.814774 0.465178 0.452929 -0.760569 255 255 255 255 
-0.635911 -0.788707 -0.164411 -0.915916 0.249624 -0.314303 255 255 255 255 
-0.609844 -0.156285 -0.332081 0.0994797 -0.988952 0.109896 255 255 255 255 
-0.658451 -0.642887 0.141488 -0.626137 0.145134 0.766087 255 255 255 255 
-0.542301 -0.547284 0.127995 0.950648 0.309634 -0.0198962 255 255 255 255 
-0.492928 -0.412734 -0.858627 -0.0159492 0.966443 -0.256387 255 255 255 255 
-0.852954 0.132058 -0.00578826 -0.957242 0.231948 -0.17288 255 255 255 255 
-0.639054 -0.636524 0.470004 -0.0101828 0.806734 -0.590827 255 255 255 255 
-0.585771 -0.368958 0.182888 0.968314 0.244866 0.0490825 255 255 255 255 
-0.550197 -0.680531 -0.639591 -0.823779 -0.365711 -0.433178 255 255 255 255 
-0.563537 -0.132901 -0.105455 0 0 0 255 255 255 255 
-0.661134 0.181891 0.845594 0.332583 0.50821 -0.794425 255 255 255 255 
-0.85556 0.239391 0.921034 -0.495372 0.594855 -0.633052 255 255 255 255 
-0.679994 -0.7907 -0.0854448 -0.846531 -0.160005 -0.507724 255 255 255 255 
-0.567294 -0.446084 -0.128301 0 0 0 255 255 255 255 
-0.665581 0.113352 0.809867 -0.436437 0.872871 -0.218217 255 255 255 255 
-0.78288 -0.962127 0.626557 -0.0851229 0.174823 -0.980913 255 255 255 255 
-0.465404 -0.418714 -0.734887 0.972048 0.0663023 0.225227 255 255 255 255 
-0.72906 0.126998 0.79553 0.135901 0.548544 -0.825003 255 255 255 255 
-0.507187 -0.251045 0.814237 0.99359 0.0488612 -0.10194 255 255 255 255 
-0.813854 0.168551 -0.0441982 -0.67315 0.711575 -0.201318 255 255 255 255 
-0.80542 -0.00249164 0.0156017 -0.811447 -0.39579 0.430005 255 255 255 255 
-0.72653 -0.257715 0.680147 -0.215473 0.241429 -0.946194 255 255 255 255 
-0.550887 -0.247671 -0.681757 0.162589 0.567257 -0.807331 255 255 255 255 
-0.666194 0.118258 0.622417 0.982496 -0.156359 -0.10126 255 255 255 255 
-0.683214 0.0760149 0.724077 0 0 0 255 255 255 255 
-0.691264 -0.403534 0.214781 -0.825451 -0.122203 0.551086 255 255 255 255 
-0.555641 -0.138498 0.792464 0.565439 0.372736 -0.735762 255 255 255 255 
-0.662361 -0.672251 0.143865 -0.28146 -0.105557 0.95375 255 255 255 255 
-0.669107 -0.660137 0.134895 -0.760238 0.193439 0.620177 255 255 255 255 
-0.495151 -0.387358 -0.787787 0.298818 0.841073 -0.450893 255 255 255 255 
-0.664047 -0.561161 0.154828 -0.78487 -0.276556 0.554523 255 255 255 255 
-0.590907 -0.426151 0.118105 0.622076 0.298158 -0.723963 255 255 255 255 
-0.512094 -0.308698 0.84314 0.732721 0.132935 -0.667419 255 255 255 255 
-0.649327 0.244145 0.900564 0.397531 0.591124 -0.701813 255 255 255 255 
-0.534634 -0.485951 -0.197225 0.800864 0.425868 -0.421014 255 255 255 255 
-0.623337 0.210948 0.889217 0.444676 0.538303 -0.715886 255 255 255 255 
-0.541917 -0.367041 -0.130295 0.971792 -0.146811 0.18457 255 255 255 255 
-0.761107 0.287385 0.0882049 -0.0989942 0.865424 -0.491163 255 255 255 255 
-0.564457 -0.455361 0.167095 0.964587 0.255662 -0.0648771 255 255 255 255 
-0.648944 0.270288 0.145398 0.789107 0.60258 -0.119195 255 255 255 255 
-0.565607 -0.625944 0.533024 0.660394 0.525355 -0.536546 255 255 255 255 
-0.613217 -0.186645 0.0830683 0.960912 0.0792925 0.265255 255 255 255 255 
-0.504351 -0.738874 0.513474 0.988618 0.113724 -0.0984955 255 255 255 255 
-0.570437 -0.0553149 -0.354851 0.59353 0.804244 -0.030229 255 255 255 255 
-0.522444 -0.566681 -0.194925 0.738912 -0.42165 -0.525566 255 255 255 255 
-0.624334 -0.410894 0.107525 0.233201 0.138588 -0.962502 255 255 255 255 
-0.626787 -0.237321 -0.200598 0.0458543 0.486885 -0.872261 255 255 255 255 
-0.926323 0.230651 0.701077 -0.161026 -0.557169 -0.814637 255 255 255 255 
-0.70951 -0.0533982 0.051405 -0.210368 -0.169648 0.96279 255 255 255 255 
-0.684977 0.0214283 0.623797 0.890785 -0.32637 -0.316202 255 255 255 255 
-0.539464 -0.0148349 0.855254 0.602986 0.286261 -0.744622 255 255 255 255 
-0.598957 -0.0651282 -0.465021 0.0602673 0.944857 -0.321891 255 255 255 255 
-0.535247 -0.297811 0.748227 0.596183 0.318736 -0.736867 255 255 255 255 
-0.565761 -0.947177 0.302181 0.530867 -0.837347 0.130502 255 255 255 255 
-0.442788 -0.478744 -0.81301 0.98637 -0.160203 0.0375461 255 255 255 255 
-0.718864 0.209798 -0.0665082 -0.156905 0.91929 -0.360953 255 255 255 255 
-0.640434 -0.894967 -0.0246482 -0.386499 -0.849534 -0.359043 255 255 255 255 
-0.446314 -0.429218 -0.890597 0.57375 0.818833 -0.0179925 255 255 255 255 
-0.547667 -0.195998 0.729981 0 0 0 255 255 255 255 
-0.467474 -0.472534 0.882394 0.669735 -0.0730275 -0.739001 255 255 255 255 
-0.617127 -0.344424 0.658834 0.374818 0.364641 -0.852378 255 255 255 255 
-0.551194 -0.689654 -0.546134 -0.726158 0.525 0.443926 255 255 255 255 
-0.621267 -0.375551 0.106988 0.168044 -0.217881 -0.961399 255 255 255 255 
-0.625101 0.111435 -0.133898 0.620979 0.312741 -0.718734 255 255 255 255 
-0.649404 0.228505 0.881934 0.348179 0.572077 -0.74263 255 255 255 255 
-0.612451 -0.0192816 0.792234 0.635437 0.296133 -0.713109 255 255 255 255 
-0.665427 0.304635 0.540308 -0.63963 -0.190239 -0.74477 255 255 255 255 
-0.515391 -0.576111 -0.117108 0 0 0 255 255 255 255 
-0.625101 -0.811017 -0.194235 0 0 0 255 255 255 255 
-0.516617 -0.526201 -0.186108 0.91631 0.165269 -0.364778 255 255 255 255 
-0.581017 -0.338291 -0.238011 0.516249 0.0867833 -0.85203 255 255 255 255 
-0.608311 -0.223215 0.053705 0.986748 -0.0508305 -0.15409 255 255 255 255 
-0.675011 -0.536244 0.119178 -0.978624 -0.0569841 -0.197608 255 255 255 255 
-0.8597 -0.598957 0.923794 -0.847178 -0.30602 -0.434329 255 255 255 255 
-0.466401 -0.410358 -0.747154 0.956902 0.25908 0.131212 255 255 255 255 
-0.923717 -0.239928 0.8827 -0.661127 -0.0449954 -0.748923 255 255 255 255 
-0.717024 -0.0934948 0.678461 0.561497 -0.396458 -0.726321 255 255 255 255 
-0.435811 -0.425154 0.905317 0.694322 -0.0687432 -0.716374 255 255 255 255 
-0.721777 -0.125771 -0.197838 -0.77856 -0.34389 -0.52496 255 255 255 255 
-0.528194 -0.605014 -0.167401 0.707091 -0.52034 -0.47882 255 255 255 255 
-0.544984 -0.0243416 0.855944 0.616998 0.305558 -0.725222 255 255 255 255 
